-2.17091 -0.460538 -1.23788 0 0 0 
-1.32889 1.12218 2.82088 0 0 0 
0.290711 -0.282869 -1.49085 0 0 0 
-2.22431 -0.0381362 -1.40117 0 0 0 
-1.2784 0.696888 0.629451 0 0 0 
-2.76552 -0.546788 2.40911 0 0 0 
0.283184 0.481467 0.415584 0 0 0 
2.75621 0.29595 2.30369 0 0 0 
0.00218328 -0.396022 1.7751 0 0 0 
-0.306238 1.54423 -1.61832 0 0 0 
-0.000893111 2.09451 -0.0437652 0 0 0 
0.989669 -0.874744 -1.55608 0 0 0 
0.837699 1.37695 0.236207 0 0 0 
2.32741 -1.04404 0.294895 0 0 0 
-0.411664 -0.904741 1.76374 0 0 0 
-1.04975 1.34175 -0.533793 0 0 0 
1.89282 1.19602 1.96786 0 0 0 
1.13028 -0.853233 -1.40507 0 0 0 
-0.256294 0.985864 2.6264 0 0 0 
0.285137 -1.06551 2.3057 0 0 0 
2.68542 1.66928 -1.65392 0 0 0 
-2.6338 0.197519 2.17254 0 0 0 
0.0969991 -0.796006 1.6016 0 0 0 
-0.636337 -1.23812 2.46105 0 0 0 
2.16375 0.528111 -1.53533 0 0 0 
0.763773 1.85331 2.24798 0 0 0 
2.58555 1.11082 0.826152 0 0 0 
1.42654 -0.158721 1.91944 0 0 0 
2.21972 1.7149 0.240061 0 0 0 
1.83816 -0.138786 1.0732 0 0 0 
1.07799 -0.333452 0.231363 0 0 0 
1.57739 -0.103112 2.61239 0 0 0 
0.66002 2.01469 -1.25074 0 0 0 
-0.931381 -0.47589 -0.629133 0 0 0 
-1.50815 -1.03112 2.15704 0 0 0 
-0.868753 1.54754 1.54074 0 0 0 
-1.69706 1.28385 0.014491 0 0 0 
1.73021 0.219078 1.95893 0 0 0 
0.514042 -0.297463 1.173 0 0 0 
-2.68473 -1.07773 -1.88468 0 0 0 
1.03418 1.71811 -0.154378 0 0 0 
-2.17485 0.757607 1.85821 0 0 0 
-2.57296 -0.836964 1.43969 0 0 0 
-1.59758 0.570049 -2.03112 0 0 0 
0.111641 1.57841 -1.15583 0 0 0 
-0.824027 -1.07281 2.87969 0 0 0 
-2.48727 -0.195016 1.56549 0 0 0 
-0.0182182 -1.0499 -1.05361 0 0 0 
-1.18777 1.35615 0.720795 0 0 0 
2.64897 1.5513 1.53896 0 0 0 
2.87595 0.215339 0.756965 0 0 0 
-0.788479 0.762894 -1.20215 0 0 0 
-2.07693 1.03529 -0.0889237 0 0 0 
2.12874 0.0082422 1.79545 0 0 0 
-2.8005 1.82107 -0.506949 0 0 0 
1.49959 -0.242279 0.345321 0 0 0 
2.70769 0.987527 -0.880259 0 0 0 
0.0764568 0.76767 -1.86669 0 0 0 
-1.58889 0.704695 0.536174 0 0 0 
1.75669 2.21048 -1.41647 0 0 0 
2.78943 -1.27581 1.99127 0 0 0 
-0.797728 2.2089 1.53249 0 0 0 
-1.03497 1.62948 -1.345 0 0 0 
-2.78706 1.91677 1.96352 0 0 0 
-0.933596 0.902493 -1.22099 0 0 0 
1.92602 0.723224 2.12821 0 0 0 
-2.59535 -1.27469 0.181425 0 0 0 
-2.34713 -0.322137 -1.84254 0 0 0 
1.51753 -1.28149 -1.44571 0 0 0 
0.386155 0.217899 -1.62622 0 0 0 
-0.422742 1.94697 1.8301 0 0 0 
-0.812654 2.07138 1.29157 0 0 0 
-1.97678 -0.624664 -0.489984 0 0 0 
-0.966282 -1.3442 2.53531 0 0 0 
-1.93598 -1.08729 -1.91446 0 0 0 
0.730145 -0.658806 -0.170294 0 0 0 
1.00687 1.9019 0.548619 0 0 0 
1.07277 0.90002 1.11707 0 0 0 
1.81798 -0.88384 -1.50348 0 0 0 
2.35009 0.277492 2.53911 0 0 0 
1.83077 2.03606 2.03759 0 0 0 
0.509132 -0.576385 1.68853 0 0 0 
-1.44827 0.108072 -1.9646 0 0 0 
0.425225 1.49096 -1.47301 0 0 0 
-0.0638783 2.20362 -0.666561 0 0 0 
0.127939 0.657515 0.665007 0 0 0 
2.37884 -0.697321 0.10826 0 0 0 
-0.455655 2.09492 -1.67633 0 0 0 
-2.61907 1.3007 -0.620545 0 0 0 
-1.94207 0.874265 1.85849 0 0 0 
-2.42669 0.0888882 1.46616 0 0 0 
2.43074 -1.60997 2.89873 0 0 0 
0.941974 -0.56022 0.143589 0 0 0 
1.0746 1.78445 -0.916781 0 0 0 
1.78757 -0.310465 -1.10377 0 0 0 
-2.48152 1.82872 1.84099 0 0 0 
0.755505 1.42216 -1.90119 0 0 0 
-2.59886 -0.943537 2.80516 0 0 0 
-2.12592 -0.703015 1.51162 0 0 0 
-0.406558 0.0054329 -0.304534 0 0 0 
-1.69469 0.378925 1.94336 0 0 0 
2.48814 0.0082341 2.10924 0 0 0 
2.42808 -1.39146 -1.46492 0 0 0 
0.485056 0.586802 -0.407141 0 0 0 
1.63394 0.922396 -1.05357 0 0 0 
0.325164 -0.606178 2.82829 0 0 0 
0.532652 -0.351689 -1.21563 0 0 0 
0.362121 0.22969 0.0617553 0 0 0 
-1.33551 1.99945 2.20737 0 0 0 
0.756921 -1.22264 -0.215836 0 0 0 
-0.431012 -1.55366 1.93321 0 0 0 
-0.700582 -0.486827 1.19755 0 0 0 
-0.805262 1.89919 -0.970901 0 0 0 
1.16603 0.977775 2.29848 0 0 0 
2.37418 -0.848241 -1.332 0 0 0 
2.23096 1.57068 0.37595 0 0 0 
-2.68634 -0.229796 2.7964 0 0 0 
-0.161489 0.897896 2.3592 0 0 0 
-1.03774 -0.6297 -2.02678 0 0 0 
1.1594 1.12316 -1.79188 0 0 0 
-0.0405104 2.1903 -2.01353 0 0 0 
-0.728436 -0.344689 -0.471199 0 0 0 
-2.79684 1.14949 -1.03127 0 0 0 
-1.4911 -0.0953347 2.30598 0 0 0 
-2.25979 -0.505122 -1.62115 0 0 0 
-1.38034 -1.0139 2.44272 0 0 0 
1.51544 -0.819871 -0.726496 0 0 0 
1.33457 1.11927 2.51286 0 0 0 
0.637554 -1.64875 -1.14645 0 0 0 
0.696771 1.20336 2.36897 0 0 0 
1.0333 -0.8754 2.16566 0 0 0 
1.10816 0.671884 -1.14436 0 0 0 
-2.9303 0.789535 2.40334 0 0 0 
-2.45565 2.29854 0.918829 0 0 0 
-1.91757 -0.706284 1.81522 0 0 0 
-2.51598 -1.70961 2.9494 0 0 0 
-0.921701 1.26357 1.43351 0 0 0 
-1.4373 -0.34653 1.55187 0 0 0 
-0.338803 2.18582 0.13904 0 0 0 
-1.02427 0.849252 1.20517 0 0 0 
-1.94976 -0.435579 -0.859011 0 0 0 
-0.848792 -0.410168 2.24755 0 0 0 
-1.49369 0.468484 1.57778 0 0 0 
0.248645 0.821959 1.50712 0 0 0 
2.44587 -0.828697 1.48523 0 0 0 
0.656035 0.228635 -1.82705 0 0 0 
-0.994067 2.04522 -2.03584 0 0 0 
1.62202 -0.71349 1.1439 0 0 0 
-0.437387 -0.0103574 2.74904 0 0 0 
1.00045 1.45374 -0.641223 0 0 0 
0.171629 -1.62942 2.07188 0 0 0 
-1.44788 0.593195 0.191623 0 0 0 
2.7833 1.15876 -0.799648 0 0 0 
2.58367 0.798691 -1.40883 0 0 0 
2.43571 0.438455 -0.285464 0 0 0 
0.70693 -1.15887 2.13369 0 0 0 
1.00194 0.204815 1.75259 0 0 0 
1.05047 -0.724843 -2.00941 0 0 0 
-1.08127 1.02361 0.116855 0 0 0 
-1.31805 -0.335667 -0.989132 0 0 0 
0.3769 1.83372 -0.847086 0 0 0 
-0.659309 -1.21778 2.01885 0 0 0 
2.01886 -1.34479 0.551353 0 0 0 
-2.40735 -1.60979 -1.35742 0 0 0 
-1.6186 2.12448 1.31888 0 0 0 
0.496342 0.562332 2.0376 0 0 0 
-0.466889 -0.795909 -0.59898 0 0 0 
-1.88004 1.98091 0.651658 0 0 0 
-1.80031 -0.8172 -0.981469 0 0 0 
0.789593 0.322559 0.746116 0 0 0 
2.07381 -1.4677 0.105808 0 0 0 
-2.40839 0.127364 0.752331 0 0 0 
2.42692 -0.528011 1.2432 0 0 0 
-0.404352 -0.14115 1.40931 0 0 0 
0.445087 0.790875 1.12534 0 0 0 
-1.48008 -0.916826 -1.0731 0 0 0 
-2.55675 0.811233 0.0904482 0 0 0 
-0.811929 1.56256 -0.369475 0 0 0 
2.40934 -1.73253 0.767976 0 0 0 
-2.23152 0.863976 -1.72431 0 0 0 
1.10126 0.246585 -1.38406 0 0 0 
-2.256 0.632723 0.910982 0 0 0 
1.08411 0.25939 2.40284 0 0 0 
-0.930397 2.03067 -0.65773 0 0 0 
-2.7488 0.287545 2.45047 0 0 0 
1.03167 1.31531 -1.56072 0 0 0 
2.21677 1.59891 1.57243 0 0 0 
-1.15863 -1.01303 0.599801 0 0 0 
0.857134 -1.39852 0.615482 0 0 0 
-1.7184 -0.890132 -1.21328 0 0 0 
-1.3021 1.92179 1.22788 0 0 0 
-0.484116 -1.68826 -0.884293 0 0 0 
-2.89083 1.11181 1.57255 0 0 0 
2.39781 -1.58202 1.17362 0 0 0 
-1.86085 -1.43116 -1.36158 0 0 0 
-2.45011 1.33267 2.38934 0 0 0 
-1.84068 0.814084 1.46127 0 0 0 
-0.306474 0.605701 2.78374 0 0 0 
2.87208 1.46874 -1.19473 0 0 0 
-2.04243 -1.482 -1.72711 0 0 0 
1.85909 0.234155 -1.65717 0 0 0 
-2.66704 0.286847 1.84435 0 0 0 
1.64139 -0.106603 2.04449 0 0 0 
-0.45526 0.657984 2.42951 0 0 0 
0.389269 1.01529 1.17514 0 0 0 
-0.272157 1.79382 -0.714761 0 0 0 
-2.02922 1.4486 -1.07282 0 0 0 
-2.7268 -0.813986 1.80845 0 0 0 
-2.92261 -0.879631 0.720848 0 0 0 
-1.88112 -0.240551 1.04357 0 0 0 
-1.46812 -1.00635 -1.55706 0 0 0 
-0.972553 -0.79899 0.93344 0 0 0 
-2.27737 -1.71526 2.94175 0 0 0 
2.5882 0.0208359 0.86054 0 0 0 
1.9742 2.34065 -0.782782 0 0 0 
-0.120652 0.101781 -1.47199 0 0 0 
1.48748 0.749991 2.44227 0 0 0 
2.67291 0.916052 -1.44288 0 0 0 
1.3257 0.946773 -0.381944 0 0 0 
2.37847 -1.36814 2.36785 0 0 0 
-2.9419 0.0104156 -1.49893 0 0 0 
0.612028 0.48711 -1.46208 0 0 0 
0.602755 0.225253 0.702408 0 0 0 
-1.8635 -0.460989 0.683359 0 0 0 
0.378499 0.483729 0.978598 0 0 0 
-0.220436 0.280417 -0.786342 0 0 0 
0.528104 -0.854049 2.51291 0 0 0 
2.52914 0.294403 1.70548 0 0 0 
0.773189 -0.112417 2.16774 0 0 0 
0.0863891 -0.0950244 -0.70709 0 0 0 
0.76876 -1.72277 2.02884 0 0 0 
1.49463 0.744605 -0.5827 0 0 0 
-1.15831 1.50736 0.9913 0 0 0 
2.10038 -0.775416 -0.0501732 0 0 0 
-0.22952 -0.666166 0.137678 0 0 0 
1.29411 1.74961 1.22997 0 0 0 
0.778567 1.44693 -1.29682 0 0 0 
-0.690194 -0.0694201 0.704365 0 0 0 
0.00395278 0.521639 2.75452 0 0 0 
-1.08307 -0.496067 0.779463 0 0 0 
0.680968 0.754099 -0.260815 0 0 0 
-1.63092 0.155071 0.927845 0 0 0 
0.761792 -0.446041 -0.0761583 0 0 0 
0.445407 1.44608 1.24639 0 0 0 
-2.87423 0.289776 0.503 0 0 0 
1.02976 -1.22286 -0.611331 0 0 0 
1.95074 0.350857 1.44255 0 0 0 
-0.699892 1.28659 1.05633 0 0 0 
-0.962848 -0.76144 -1.19197 0 0 0 
-1.19316 0.540731 0.339037 0 0 0 
2.17898 -1.03936 -1.62438 0 0 0 
-1.6111 -0.115855 0.70462 0 0 0 
1.93622 -1.64008 2.29694 0 0 0 
-1.63586 0.718532 1.18157 0 0 0 
2.28752 0.782694 -1.35089 0 0 0 
-0.600837 -0.55632 -0.71059 0 0 0 
1.1294 -1.25878 1.85835 0 0 0 
-0.649766 0.308237 0.547519 0 0 0 
-2.88488 1.6935 1.75331 0 0 0 
-1.84013 -1.18195 -0.471602 0 0 0 
1.01207 -1.72664 0.393584 0 0 0 
1.54634 -0.789435 2.39056 0 0 0 
-1.10399 -1.50193 2.51954 0 0 0 
-1.8745 -0.581833 0.51253 0 0 0 
1.97236 -1.05152 -1.41585 0 0 0 
2.8295 0.58396 0.041324 0 0 0 
-1.49157 -0.686188 0.63761 0 0 0 
-2.77985 0.915471 -1.87223 0 0 0 
0.318469 0.972271 2.34217 0 0 0 
-1.09383 1.75118 -1.99393 0 0 0 
0.801364 0.399938 -1.97104 0 0 0 
-2.21616 -0.582028 -0.799558 0 0 0 
-2.87615 0.705684 -0.501259 0 0 0 
2.55025 1.46084 0.924642 0 0 0 
-0.326856 0.773323 1.77493 0 0 0 
0.453606 0.678243 -0.396998 0 0 0 
2.95434 1.69807 0.901014 0 0 0 
0.224898 1.82746 -0.864639 0 0 0 
0.466575 -0.0031827 2.46587 0 0 0 
-0.250538 1.29155 1.7244 0 0 0 
-0.152542 -0.205328 -0.673053 0 0 0 
-0.0275149 0.313674 0.75261 0 0 0 
1.48051 0.376508 -1.27014 0 0 0 
-2.59343 0.0884175 2.65912 0 0 0 
0.950107 1.91326 0.71926 0 0 0 
-0.436662 0.176025 -1.33712 0 0 0 
1.54661 0.167231 2.88287 0 0 0 
-0.871871 -1.72809 2.23489 0 0 0 
0.55932 0.645161 -0.656601 0 0 0 
-1.45818 0.366561 -0.074036 0 0 0 
0.199186 -1.70322 2.44934 0 0 0 
-2.39449 1.37084 0.02317 0 0 0 
-1.78496 0.23501 1.72766 0 0 0 
1.51612 1.98396 -0.944207 0 0 0 
2.38951 1.00218 1.3997 0 0 0 
2.31073 -1.6512 1.42083 0 0 0 
1.46697 0.786149 -0.676098 0 0 0 
-2.79036 -1.27274 -0.471971 0 0 0 
-2.65391 -0.229843 2.11622 0 0 0 
-0.289365 1.95859 2.16783 0 0 0 
-0.879958 2.35434 0.96024 0 0 0 
1.59934 -0.693114 0.0691383 0 0 0 
0.797601 0.123928 2.49611 0 0 0 
-0.644973 -0.878931 2.03992 0 0 0 
0.692284 -1.27812 0.380532 0 0 0 
-1.13747 -1.73176 0.495889 0 0 0 
-2.94228 1.33293 -1.42825 0 0 0 
0.606254 1.67151 1.00819 0 0 0 
-0.377606 -0.579255 0.52092 0 0 0 
-1.30054 0.863301 0.518644 0 0 0 
2.28502 -0.0820341 1.80817 0 0 0 
-1.11553 -1.58151 -0.927546 0 0 0 
-1.65091 0.0234587 0.134253 0 0 0 
-2.72484 -1.54881 0.706835 0 0 0 
0.176345 -0.284244 0.723466 0 0 0 
-2.72041 -0.267116 -0.530571 0 0 0 
-1.95459 0.893062 -1.63493 0 0 0 
-0.505033 -0.738671 2.55251 0 0 0 
-2.79698 1.0511 -1.04498 0 0 0 
0.269943 2.20296 2.15198 0 0 0 
-2.59994 1.73155 -0.836144 0 0 0 
1.98665 -1.09024 -0.635382 0 0 0 
-2.59055 -0.180547 1.53232 0 0 0 
0.019891 -0.0131306 1.77316 0 0 0 
-2.62782 2.15952 -1.46278 0 0 0 
0.678213 2.33 0.348817 0 0 0 
2.50379 -1.07173 -1.4443 0 0 0 
-2.90852 0.629965 -0.210607 0 0 0 
2.55681 0.747522 -1.81004 0 0 0 
-2.15902 -1.11666 -1.99784 0 0 0 
2.83346 -0.862919 2.26319 0 0 0 
0.0660179 -1.28032 -0.0428373 0 0 0 
2.9381 1.01866 1.83899 0 0 0 
-2.27097 -0.563337 1.80689 0 0 0 
0.592775 -0.883538 2.63241 0 0 0 
1.33965 -0.843074 0.516856 0 0 0 
-2.39116 -1.12663 -1.45462 0 0 0 
-2.07607 -0.568127 -0.684171 0 0 0 
-1.98269 -0.660465 0.397251 0 0 0 
-2.79305 0.259653 0.648205 0 0 0 
-2.65562 2.35604 1.21809 0 0 0 
-0.254241 -0.805549 -0.708456 0 0 0 
-1.28083 -0.825566 2.6789 0 0 0 
-2.59197 -0.344444 -0.899078 0 0 0 
1.99311 2.11603 0.157074 0 0 0 
1.61864 0.991199 1.26282 0 0 0 
-0.518677 2.00508 -1.56279 0 0 0 
1.12557 -1.41608 -0.23326 0 0 0 
-1.88763 -1.2958 2.22391 0 0 0 
1.32956 -1.08054 2.22373 0 0 0 
-0.714597 0.794496 -1.65109 0 0 0 
0.900978 1.95998 -0.523891 0 0 0 
0.581395 2.21923 1.19294 0 0 0 
1.97193 1.54606 0.898609 0 0 0 
-1.32481 0.614065 -0.774236 0 0 0 
2.61796 1.79853 -1.95926 0 0 0 
1.52176 -0.610725 2.63698 0 0 0 
2.12873 2.218 -1.98606 0 0 0 
-1.62882 -1.13745 -1.43515 0 0 0 
-2.48554 1.83227 -0.620429 0 0 0 
2.59164 -0.712399 2.49221 0 0 0 
-2.83974 1.9611 2.00663 0 0 0 
-1.00627 0.312182 1.83879 0 0 0 
2.854 -0.375629 0.845943 0 0 0 
0.432685 0.759456 -1.28909 0 0 0 
1.9706 0.518167 -1.97252 0 0 0 
2.10953 -0.480793 -0.582029 0 0 0 
1.84775 -0.135261 -0.00640898 0 0 0 
2.60542 0.197554 -0.648489 0 0 0 
-1.6092 -0.061927 0.617399 0 0 0 
-2.14918 0.0260752 0.133195 0 0 0 
1.36032 1.30318 -0.693196 0 0 0 
-1.12317 -0.44852 2.3765 0 0 0 
-0.193071 -1.13725 0.123937 0 0 0 
-0.0697985 -1.72995 1.67367 0 0 0 
1.69503 1.52377 2.51328 0 0 0 
-2.6742 0.750135 -0.540074 0 0 0 
-0.229822 0.500181 1.84099 0 0 0 
1.45655 1.4387 -1.12249 0 0 0 
-1.29675 2.004 1.04842 0 0 0 
1.31244 1.79985 -0.146316 0 0 0 
0.964329 0.689314 -1.43682 0 0 0 
2.59792 1.96377 0.152463 0 0 0 
1.92133 -0.220442 0.897686 0 0 0 
-2.92085 0.902879 -0.103627 0 0 0 
2.49817 1.1053 -2.0719 0 0 0 
-1.62159 -1.10431 0.680041 0 0 0 
-2.93037 1.95318 -0.444376 0 0 0 
-1.80359 -0.99387 -0.876005 0 0 0 
1.88607 1.96402 -1.55782 0 0 0 
-1.76884 0.579776 1.42592 0 0 0 
-1.01314 0.324634 0.944983 0 0 0 
1.6188 -0.398149 2.81378 0 0 0 
-0.803607 0.674924 2.11018 0 0 0 
2.73036 0.706865 0.329097 0 0 0 
-0.874156 0.38278 -1.20392 0 0 0 
-0.868208 1.31273 -0.418334 0 0 0 
2.38656 1.33809 -0.912244 0 0 0 
-0.202449 1.3951 -0.471934 0 0 0 
-1.38839 -0.527741 -0.112185 0 0 0 
2.17916 -1.45963 1.53883 0 0 0 
2.01881 0.0357004 -0.521623 0 0 0 
1.02782 -0.127904 2.48362 0 0 0 
-2.06583 1.31866 0.0651375 0 0 0 
-1.03518 -1.33219 -1.21366 0 0 0 
0.922896 -1.73341 2.56518 0 0 0 
2.29789 -0.802508 2.30298 0 0 0 
-1.17402 1.10833 1.12513 0 0 0 
0.720778 -0.658772 0.962231 0 0 0 
0.0454426 0.432366 2.45442 0 0 0 
2.36495 -0.112213 2.80456 0 0 0 
0.699445 -0.767621 -0.0392788 0 0 0 
2.53559 1.99355 1.94293 0 0 0 
1.98546 -1.48507 0.671398 0 0 0 
-1.41981 -0.149802 1.17772 0 0 0 
-0.400654 -1.56268 1.19232 0 0 0 
-1.61787 -0.785892 0.818478 0 0 0 
2.16235 1.76305 2.15009 0 0 0 
-0.183858 -0.256298 -0.207625 0 0 0 
-0.768449 -0.672464 1.79381 0 0 0 
-0.939683 1.86174 -2.03452 0 0 0 
0.277452 0.885057 2.86654 0 0 0 
-2.4121 1.95448 -0.204636 0 0 0 
1.43021 -0.373206 0.0192066 0 0 0 
-0.64436 1.08695 -0.32378 0 0 0 
-1.35485 2.01948 0.852041 0 0 0 
2.06336 1.46328 0.125129 0 0 0 
1.11948 -0.714561 1.94998 0 0 0 
-2.6078 0.805067 -1.76173 0 0 0 
2.01191 1.16877 1.68739 0 0 0 
1.53731 -0.690223 -0.115541 0 0 0 
1.43925 -0.306648 -0.607857 0 0 0 
-2.28451 -1.36888 1.07372 0 0 0 
0.19011 0.236511 -0.481778 0 0 0 
2.25982 1.35083 -0.894436 0 0 0 
-0.216477 0.726216 -1.98873 0 0 0 
2.38319 -0.550785 -0.725493 0 0 0 
1.20308 -0.302476 2.4001 0 0 0 
1.5752 -0.997263 2.21645 0 0 0 
-0.258182 1.45587 2.05429 0 0 0 
2.05736 0.399886 -1.20911 0 0 0 
-2.14242 0.871648 -0.747764 0 0 0 
1.57711 -1.04771 1.68104 0 0 0 
-2.47383 -1.53654 0.448944 0 0 0 
-1.07781 0.364594 -1.54865 0 0 0 
-0.973677 -0.0389623 -0.0846951 0 0 0 
0.621783 -1.25818 1.68357 0 0 0 
-0.892473 0.682049 2.70806 0 0 0 
2.45814 -1.54716 1.60469 0 0 0 
1.40117 1.9256 -0.79283 0 0 0 
2.42569 -1.60595 2.41436 0 0 0 
2.49725 1.87578 -1.50137 0 0 0 
-0.454918 -0.91994 1.08441 0 0 0 
0.168765 0.457839 -1.85093 0 0 0 
2.52072 -1.16316 -1.25392 0 0 0 
1.02609 0.86898 -1.83588 0 0 0 
0.613773 2.30289 1.13895 0 0 0 
0.328613 1.95113 1.38181 0 0 0 
-1.25914 0.868824 0.854097 0 0 0 
0.256827 0.494644 1.02491 0 0 0 
-0.375061 1.20504 0.0183459 0 0 0 
0.00236605 0.880317 -0.570416 0 0 0 
0.681865 -1.48487 0.441124 0 0 0 
-1.5201 0.682534 -1.88537 0 0 0 
-1.25328 0.374037 -1.1719 0 0 0 
-0.281652 -0.967513 2.03201 0 0 0 
0.002929 1.50747 1.96668 0 0 0 
-2.13466 -0.316158 1.47027 0 0 0 
1.94859 0.864317 -0.352554 0 0 0 
-0.525277 -1.00893 2.3926 0 0 0 
-2.79749 0.782596 0.981823 0 0 0 
-0.32389 -1.26653 -0.826912 0 0 0 
1.45465 1.25552 -0.507715 0 0 0 
-1.28059 -0.661376 0.0385123 0 0 0 
-0.212148 1.19471 0.991751 0 0 0 
-1.29542 -0.854023 -0.0483828 0 0 0 
-2.45581 -0.278686 1.70311 0 0 0 
1.73186 -0.98263 -0.125231 0 0 0 
-2.16652 0.705072 0.777248 0 0 0 
-2.82409 0.822272 -1.15125 0 0 0 
0.786952 -1.45235 -0.564463 0 0 0 
2.26268 1.60383 -1.91337 0 0 0 
-2.38778 -0.322725 -0.708206 0 0 0 
-2.20173 -1.36472 -1.03931 0 0 0 
0.193099 -1.01135 0.758105 0 0 0 
-1.27846 2.23643 1.69282 0 0 0 
1.02565 -1.31178 -0.330686 0 0 0 
-1.53894 -1.21296 2.81599 0 0 0 
-0.446109 1.38172 -1.85151 0 0 0 
1.33946 0.894876 2.25299 0 0 0 
1.58016 2.08885 -0.715199 0 0 0 
-2.7381 0.113866 -1.66473 0 0 0 
-2.80267 0.642845 -1.19828 0 0 0 
-1.57769 -1.27445 -0.298767 0 0 0 
1.76924 -0.107329 -0.445541 0 0 0 
0.285534 -1.44919 0.0857909 0 0 0 
2.34709 -0.462108 0.738227 0 0 0 
2.18935 1.28031 -0.456017 0 0 0 
2.45549 0.155353 2.77964 0 0 0 
1.6331 -0.83614 1.96132 0 0 0 
1.18247 2.30679 1.63369 0 0 0 
2.79009 -1.63648 -1.11435 0 0 0 
-2.65739 -1.52286 1.81243 0 0 0 
-1.62008 -0.562555 2.3895 0 0 0 
0.479156 -1.39046 -0.629622 0 0 0 
2.40512 0.857658 -0.266692 0 0 0 
-0.975777 0.429148 1.30594 0 0 0 
2.34769 -0.108388 -0.0125904 0 0 0 
-1.67284 -0.461974 2.31676 0 0 0 
-1.8735 -1.38398 -1.59555 0 0 0 
2.8939 1.48408 -1.6561 0 0 0 
1.34039 1.36176 -1.52271 0 0 0 
2.47678 1.57579 -1.25006 0 0 0 
1.13428 -1.59473 0.199469 0 0 0 
0.473048 0.787216 0.634375 0 0 0 
2.18169 0.398814 -1.20213 0 0 0 
2.37835 1.34704 -1.55766 0 0 0 
-1.11869 2.24158 0.01513 0 0 0 
-1.86581 -1.1041 0.457976 0 0 0 
-1.2975 -1.15467 -0.610828 0 0 0 
-0.800673 1.82254 -1.82954 0 0 0 
-0.146366 1.48367 2.2406 0 0 0 
0.829817 0.216897 2.42517 0 0 0 
-2.41687 -1.5069 0.502341 0 0 0 
0.783988 2.05179 -1.89649 0 0 0 
1.81675 -1.11545 2.41796 0 0 0 
0.0614513 -1.52236 1.18121 0 0 0 
0.674489 -0.244807 1.04075 0 0 0 
-2.78982 0.516353 1.82659 0 0 0 
1.93362 -0.933853 1.89646 0 0 0 
2.22569 1.01574 0.827159 0 0 0 
1.38868 -0.461468 -1.79462 0 0 0 
0.769553 -0.0811917 -1.50242 0 0 0 
-2.53419 -0.291909 -0.830282 0 0 0 
1.31225 2.22504 1.00866 0 0 0 
-0.941266 2.34755 -1.24613 0 0 0 
-2.26704 0.436947 2.93985 0 0 0 
-2.73825 -0.277343 -1.09221 0 0 0 
1.95258 -0.78976 2.29158 0 0 0 
-0.553086 2.22082 -1.16156 0 0 0 
-0.219786 0.701957 0.877894 0 0 0 
0.458467 1.28772 1.06816 0 0 0 
0.696305 2.02072 0.284044 0 0 0 
1.84546 2.31991 2.06526 0 0 0 
-2.61691 1.17614 1.90453 0 0 0 
1.02581 -1.5252 1.89393 0 0 0 
2.00663 -1.04137 -0.458168 0 0 0 
1.99511 -0.883217 1.3409 0 0 0 
-2.77647 -1.5844 2.51198 0 0 0 
2.38081 0.0840806 2.34607 0 0 0 
-2.47265 1.98293 0.318753 0 0 0 
1.0157 0.249051 -0.990703 0 0 0 
-1.20546 -1.32044 -1.40184 0 0 0 
1.58182 2.00586 -1.44631 0 0 0 
0.537795 2.24787 2.13404 0 0 0 
-0.695977 0.906124 2.40381 0 0 0 
-1.94226 0.242297 -1.76001 0 0 0 
-0.031209 -0.429489 -0.703462 0 0 0 
-1.93038 -0.297759 -0.50624 0 0 0 
-2.44703 -0.702963 1.73576 0 0 0 
2.77459 -0.361241 1.27831 0 0 0 
-0.33128 -1.70998 -1.30406 0 0 0 
0.951086 -0.4924 -0.783342 0 0 0 
1.74808 -1.44985 -1.21269 0 0 0 
2.49257 0.972626 -1.34544 0 0 0 
1.52976 -1.55918 1.904 0 0 0 
0.885418 -0.850862 -0.686652 0 0 0 
1.25958 1.17833 0.925953 0 0 0 
-1.19877 2.25429 -1.0491 0 0 0 
-2.63179 2.12126 0.647145 0 0 0 
1.32928 -0.158475 0.690469 0 0 0 
2.24172 -1.55187 2.22597 0 0 0 
-1.14494 1.37917 0.89249 0 0 0 
-0.281367 0.385741 1.12062 0 0 0 
-1.51577 -1.05304 2.21682 0 0 0 
0.125548 1.86831 0.773309 0 0 0 
-2.26349 1.80886 0.207924 0 0 0 
-2.55817 -1.07047 0.0830384 0 0 0 
-1.34474 -0.838732 -0.204881 0 0 0 
1.87119 2.1308 1.73986 0 0 0 
-0.795842 1.62946 1.97695 0 0 0 
-1.65013 2.18366 1.1815 0 0 0 
-2.07691 -0.658458 -0.0158749 0 0 0 
1.42867 1.19783 2.59582 0 0 0 
-0.730546 2.20093 -1.58231 0 0 0 
-1.59564 0.236942 2.84632 0 0 0 
1.76924 0.723234 2.17555 0 0 0 
-1.46747 1.00585 -2.02394 0 0 0 
1.08251 2.12716 -0.912872 0 0 0 
-2.64154 1.36972 -1.1891 0 0 0 
1.86441 -1.2311 2.94681 0 0 0 
0.716135 -0.320873 2.73536 0 0 0 
-1.37122 0.294377 -0.959193 0 0 0 
1.06199 -0.768922 2.64774 0 0 0 
0.644324 0.776903 2.45746 0 0 0 
1.22827 1.7248 -0.139753 0 0 0 
1.10634 0.896891 2.88555 0 0 0 
0.192516 1.93337 1.23066 0 0 0 
0.255093 0.630816 0.949974 0 0 0 
1.62934 0.855808 -0.258976 0 0 0 
2.67749 0.093681 0.371223 0 0 0 
2.67418 -1.4621 2.11694 0 0 0 
2.42125 -0.359095 -0.409883 0 0 0 
-2.1933 -1.67584 0.786735 0 0 0 
-2.54967 0.820268 -1.14874 0 0 0 
2.80344 -0.381544 -1.92253 0 0 0 
-0.843716 -1.66763 1.31559 0 0 0 
-0.919338 0.516193 0.797411 0 0 0 
-2.94865 -1.35825 -1.31709 0 0 0 
0.624798 1.81867 1.87068 0 0 0 
2.77101 1.61852 -0.9021 0 0 0 
-0.272916 1.41609 -0.554999 0 0 0 
-1.25593 1.03885 1.14387 0 0 0 
0.712131 1.57365 1.22904 0 0 0 
-0.74546 1.74906 1.01808 0 0 0 
-0.563173 -0.884861 1.1133 0 0 0 
-2.49222 0.530476 -1.14168 0 0 0 
0.901116 0.543203 -0.667309 0 0 0 
1.79816 -1.07571 -1.32606 0 0 0 
0.524429 -1.21122 2.79645 0 0 0 
1.9114 0.650909 1.64433 0 0 0 
-2.22599 1.8336 0.0298764 0 0 0 
1.57637 0.275051 -0.929154 0 0 0 
-0.454853 1.05318 -1.53463 0 0 0 
1.22585 -1.51283 2.74785 0 0 0 
-1.05442 0.148683 -1.22416 0 0 0 
2.71184 0.476883 1.56491 0 0 0 
-2.11816 -0.951049 -0.656971 0 0 0 
-0.454007 2.34256 0.163665 0 0 0 
0.432449 0.654269 0.818233 0 0 0 
0.251639 -0.0753809 -1.27165 0 0 0 
-1.28932 0.436832 -1.9121 0 0 0 
1.1979 -0.524381 0.563942 0 0 0 
2.55293 1.212 -1.03294 0 0 0 
-2.74096 0.00851652 -0.748006 0 0 0 
2.95498 1.33049 1.57317 0 0 0 
-1.97239 1.15408 -0.72999 0 0 0 
2.32702 1.74082 0.243427 0 0 0 
-1.93075 -0.623738 0.226714 0 0 0 
0.714412 1.72592 -1.85905 0 0 0 
-1.80179 -0.150912 0.187526 0 0 0 
-0.851099 1.0087 2.86183 0 0 0 
-0.656493 -0.214096 -0.668403 0 0 0 
2.46122 -0.500334 -2.07065 0 0 0 
-2.24041 -0.34406 0.0787413 0 0 0 
-0.671522 -0.35241 -1.1783 0 0 0 
-2.29649 0.335083 2.37502 0 0 0 
-0.706333 -0.1073 1.62087 0 0 0 
2.03299 0.608973 -2.03114 0 0 0 
-1.18153 -0.948004 2.22299 0 0 0 
-0.9243 -0.142599 -0.849544 0 0 0 
1.74903 1.3199 2.52561 0 0 0 
-2.62585 -1.53424 0.90142 0 0 0 
-2.61842 -1.03199 2.61872 0 0 0 
-0.0735205 0.554631 -0.70076 0 0 0 
0.987381 1.01812 1.84885 0 0 0 
0.309054 -1.52085 -1.17024 0 0 0 
-1.2596 1.93507 1.71503 0 0 0 
-1.20552 -0.93234 2.69218 0 0 0 
-2.06333 0.479568 -0.370171 0 0 0 
-0.614314 -0.362305 -1.64018 0 0 0 
-1.11486 -1.2758 -0.953 0 0 0 
0.599991 -1.03996 -0.6943 0 0 0 
-1.81801 -0.798993 0.17992 0 0 0 
-2.20863 1.20095 -2.02795 0 0 0 
-0.583975 -0.167354 1.35874 0 0 0 
-1.88348 2.09702 1.63385 0 0 0 
-0.813065 -0.824347 1.11775 0 0 0 
-2.27055 0.393187 2.11409 0 0 0 
-2.57445 1.01783 -0.185774 0 0 0 
-0.559515 -1.45753 1.50917 0 0 0 
-0.0438912 -0.177339 2.08459 0 0 0 
2.91527 -1.0192 -0.91774 0 0 0 
-0.354498 -0.494997 2.69302 0 0 0 
-0.296665 1.15214 -0.399666 0 0 0 
-2.17477 1.90108 -0.717295 0 0 0 
2.20602 -0.711651 0.411398 0 0 0 
0.0434077 -0.230239 -1.99433 0 0 0 
-0.942963 0.0411217 1.39201 0 0 0 
1.28967 1.70516 1.74471 0 0 0 
-0.410853 -0.375938 -1.36022 0 0 0 
-1.43205 -1.53993 -1.44364 0 0 0 
-1.43272 -1.57573 -0.55375 0 0 0 
-0.0642135 0.230014 0.978572 0 0 0 
-0.367124 2.07573 -0.49704 0 0 0 
1.61299 -1.47819 -1.0548 0 0 0 
-2.71599 2.09732 0.21201 0 0 0 
0.221636 0.076564 2.0688 0 0 0 
0.319164 1.47557 -0.768393 0 0 0 
-1.51967 0.316197 -1.56626 0 0 0 
-2.94212 2.08299 0.111976 0 0 0 
-2.09598 -0.957575 0.363698 0 0 0 
-1.34834 0.102927 0.571551 0 0 0 
0.449874 2.10931 -2.03415 0 0 0 
-1.87704 -0.195203 2.64868 0 0 0 
1.19482 -0.957566 2.65881 0 0 0 
-2.03706 1.24638 -0.134947 0 0 0 
2.85722 -0.583778 -1.21418 0 0 0 
-1.53209 0.416624 1.31229 0 0 0 
-0.929193 0.433864 0.977463 0 0 0 
1.65495 1.03593 1.94288 0 0 0 
1.72883 0.414933 -1.12114 0 0 0 
1.77935 1.16833 0.77859 0 0 0 
1.42408 -0.890643 1.53134 0 0 0 
1.11202 -1.47278 1.13667 0 0 0 
-2.52946 -1.5487 2.56018 0 0 0 
-1.51092 -0.556878 0.18318 0 0 0 
2.49025 0.851647 2.85385 0 0 0 
0.162028 -0.0552545 1.23583 0 0 0 
-1.02647 1.02934 0.988952 0 0 0 
0.459111 0.173503 -1.39013 0 0 0 
1.58749 -0.647416 2.18066 0 0 0 
2.74967 0.0606019 -1.91817 0 0 0 
0.609397 0.363059 -1.6772 0 0 0 
0.149663 1.36951 -0.220713 0 0 0 
2.81786 1.03995 -2.06458 0 0 0 
2.70482 -0.898823 0.00665752 0 0 0 
0.681605 0.442469 -1.61945 0 0 0 
-1.63306 -1.29097 0.732142 0 0 0 
-0.822231 1.85703 2.07767 0 0 0 
-1.73002 -0.867985 2.1162 0 0 0 
-1.40124 -0.648738 0.874207 0 0 0 
-1.60814 -0.798991 -1.93911 0 0 0 
-0.94878 -0.274347 -0.564435 0 0 0 
1.2426 -0.377469 2.84901 0 0 0 
1.25719 -0.558724 -1.14011 0 0 0 
-2.21712 1.96315 1.5411 0 0 0 
-1.67702 -1.21634 2.09794 0 0 0 
1.63926 0.26611 1.4862 0 0 0 
0.609886 1.12112 2.56141 0 0 0 
-0.373991 2.20338 -1.12123 0 0 0 
-2.82412 -0.958888 0.0385383 0 0 0 
-2.6614 0.109918 -0.798774 0 0 0 
0.551743 1.50491 1.00396 0 0 0 
2.33734 0.313001 2.68032 0 0 0 
2.21859 -0.868819 -0.892007 0 0 0 
-2.60956 -0.35048 -1.3737 0 0 0 
1.66174 0.541162 -0.725412 0 0 0 
0.656304 -0.376585 1.73967 0 0 0 
-1.07133 2.09572 0.226051 0 0 0 
-1.52961 -0.21354 0.0387704 0 0 0 
-0.401342 -0.11474 1.00258 0 0 0 
2.0961 0.0965226 -1.7503 0 0 0 
-2.32907 -1.57289 2.23296 0 0 0 
1.30811 2.09339 -0.271036 0 0 0 
0.990199 1.57606 0.803156 0 0 0 
-2.71482 0.920956 0.288208 0 0 0 
-1.11927 -0.676183 1.96565 0 0 0 
-2.54766 0.6341 1.64642 0 0 0 
0.17115 1.62763 -1.50287 0 0 0 
2.66887 -0.700532 0.495472 0 0 0 
0.370293 -1.30252 2.75272 0 0 0 
0.755907 -0.861555 -2.06249 0 0 0 
2.04184 0.72698 1.6859 0 0 0 
-0.492161 0.327494 1.03265 0 0 0 
-1.00809 0.501835 -0.72628 0 0 0 
1.78411 1.77899 0.583992 0 0 0 
0.62249 2.06887 -1.52649 0 0 0 
-0.915989 0.136399 2.60718 0 0 0 
-0.238262 -0.0697057 -1.13894 0 0 0 
2.79862 2.23699 -0.596259 0 0 0 
2.56618 0.708697 0.486834 0 0 0 
2.58324 -1.40436 0.164697 0 0 0 
2.22007 2.05767 -1.83196 0 0 0 
0.728192 -0.333257 0.708353 0 0 0 
-1.53488 1.02074 -1.56422 0 0 0 
0.0596495 0.203111 2.75494 0 0 0 
-2.73309 -1.4174 2.40281 0 0 0 
-2.08325 0.000250467 -0.317621 0 0 0 
-2.48751 1.88633 1.73591 0 0 0 
0.36789 1.49283 -0.429236 0 0 0 
-2.53955 1.22754 -0.011368 0 0 0 
0.10683 0.711234 -0.377213 0 0 0 
0.396047 -0.836218 1.35333 0 0 0 
-2.24988 0.153669 -0.283315 0 0 0 
-1.64458 2.24566 2.10456 0 0 0 
-1.8744 -1.69415 2.50645 0 0 0 
-2.51992 -1.08328 -0.380837 0 0 0 
-0.442946 -0.751824 -0.95667 0 0 0 
-1.87578 0.345018 -1.67518 0 0 0 
2.45304 -1.45147 2.29328 0 0 0 
-1.53587 -1.15598 0.91008 0 0 0 
0.902653 0.968618 -1.10587 0 0 0 
2.90928 -0.808405 0.00827341 0 0 0 
1.02478 -0.312705 2.33556 0 0 0 
-2.79186 0.60136 2.20009 0 0 0 
2.14464 1.35658 2.26282 0 0 0 
1.62146 1.66563 -1.95237 0 0 0 
-2.31031 -0.691282 -0.734799 0 0 0 
-0.987768 0.0629823 1.82699 0 0 0 
-0.51347 -0.292297 2.18713 0 0 0 
-1.2883 0.696906 2.90939 0 0 0 
2.23805 -0.729963 1.20887 0 0 0 
-2.54967 -0.769901 2.3571 0 0 0 
-0.0879555 1.98916 -0.913719 0 0 0 
-0.812875 2.11026 1.96222 0 0 0 
-2.50851 0.611771 -0.109138 0 0 0 
-2.36145 1.0657 1.18263 0 0 0 
-2.10229 0.0280793 0.152963 0 0 0 
2.93168 1.1884 -1.88055 0 0 0 
2.8842 0.684525 -0.636184 0 0 0 
0.82917 0.973016 0.559234 0 0 0 
0.129686 -1.13854 0.109428 0 0 0 
1.50294 0.350383 -0.191975 0 0 0 
0.337275 1.22772 -1.19002 0 0 0 
-2.27463 1.54466 1.69868 0 0 0 
0.0484694 1.96324 0.11714 0 0 0 
-2.03754 -0.624544 0.212174 0 0 0 
-1.50728 -0.0268341 2.38554 0 0 0 
1.12525 -0.0512869 0.954374 0 0 0 
1.35711 -0.108555 -1.09431 0 0 0 
-2.87612 -1.58621 2.23711 0 0 0 
0.236033 0.554184 -2.0458 0 0 0 
2.81716 -0.457785 0.522564 0 0 0 
-0.891648 1.82609 -0.860413 0 0 0 
0.155412 2.30468 -1.85497 0 0 0 
-1.32137 0.287422 2.69 0 0 0 
1.26886 0.929881 -0.962987 0 0 0 
-1.96283 1.93885 1.14308 0 0 0 
-2.62874 0.665834 -1.80736 0 0 0 
0.9499 -0.446928 0.198558 0 0 0 
2.10995 -0.384073 0.393559 0 0 0 
1.26881 1.82983 -1.81486 0 0 0 
1.30557 1.72622 -0.236936 0 0 0 
-1.55968 -0.940823 -0.886591 0 0 0 
-0.123504 1.21736 -0.94972 0 0 0 
0.138543 2.35481 1.54148 0 0 0 
-0.167933 1.18106 -0.206511 0 0 0 
1.14715 1.87516 -0.717981 0 0 0 
-0.667293 0.714788 -1.19834 0 0 0 
2.01906 0.122375 0.469924 0 0 0 
-0.998495 -1.05142 -0.175153 0 0 0 
-0.689096 1.90173 -0.947201 0 0 0 
1.48313 -1.22705 0.0387459 0 0 0 
2.88841 0.738347 -1.35694 0 0 0 
-1.71496 -1.21666 -1.35863 0 0 0 
2.55679 0.718033 2.22776 0 0 0 
-1.16918 -0.539844 1.63823 0 0 0 
0.435146 0.82973 1.33529 0 0 0 
-0.406153 -1.68225 -0.676303 0 0 0 
0.631086 1.76404 1.61263 0 0 0 
-2.29632 -0.976858 2.46304 0 0 0 
-0.0511489 0.597617 1.90607 0 0 0 
1.28257 -0.428038 2.54124 0 0 0 
-2.15386 -0.482399 0.558517 0 0 0 
-1.30385 0.383022 1.20642 0 0 0 
-0.455844 0.0994514 -0.801197 0 0 0 
-1.30803 1.3421 0.676164 0 0 0 
-2.85617 -0.407898 -1.19457 0 0 0 
1.17216 1.36214 -1.11726 0 0 0 
2.82569 -0.252429 -1.84296 0 0 0 
1.24731 0.211173 -0.901177 0 0 0 
0.672892 2.22658 1.97018 0 0 0 
-0.559055 1.0623 -1.44199 0 0 0 
-1.04115 1.62437 0.105774 0 0 0 
2.07015 -1.32759 2.71414 0 0 0 
0.0122256 0.408107 -0.0515744 0 0 0 
1.51831 1.55479 -1.29438 0 0 0 
-1.16561 1.63143 0.344686 0 0 0 
-0.123918 0.390837 -0.873558 0 0 0 
1.00904 0.293125 0.956038 0 0 0 
1.28527 -0.895523 -1.67275 0 0 0 
2.67332 1.62033 -1.8316 0 0 0 
1.51705 -0.816842 1.60925 0 0 0 
2.26665 0.514299 0.71237 0 0 0 
-1.09065 -0.105623 1.22433 0 0 0 
1.02243 0.95225 2.88128 0 0 0 
1.94629 2.19737 1.99306 0 0 0 
-1.12897 0.0609576 -0.415543 0 0 0 
0.291695 -1.29238 2.08265 0 0 0 
-1.29502 0.441495 -1.66638 0 0 0 
-2.87739 -0.0426095 1.10287 0 0 0 
0.415552 1.25432 -1.91416 0 0 0 
-1.62124 -1.74241 2.61898 0 0 0 
-0.542414 1.01503 0.898399 0 0 0 
-0.623071 0.309496 0.703753 0 0 0 
0.209052 -0.269206 -1.55403 0 0 0 
-0.814439 0.356472 2.60305 0 0 0 
-0.608425 1.31196 1.48476 0 0 0 
-1.46707 -1.63389 -0.861762 0 0 0 
-0.982376 -1.57191 1.22498 0 0 0 
2.77157 0.766073 -0.125404 0 0 0 
2.96374 1.69627 -0.121823 0 0 0 
2.57341 -0.729391 -1.76546 0 0 0 
0.151848 0.890719 0.752793 0 0 0 
-2.49951 1.73032 -0.198528 0 0 0 
-2.53751 -0.175952 1.61051 0 0 0 
-1.92018 1.31189 -0.840215 0 0 0 
-2.32931 -1.1594 2.90659 0 0 0 
1.87548 -0.122647 -1.98339 0 0 0 
-2.62405 1.24912 -1.77086 0 0 0 
1.27405 1.114 1.30695 0 0 0 
-2.35618 1.11171 0.498195 0 0 0 
-0.0480486 0.839625 1.74326 0 0 0 
0.319672 -1.10618 -0.0527272 0 0 0 
-2.27379 -0.78302 -0.819759 0 0 0 
-0.0562155 -0.486126 1.10356 0 0 0 
-1.6371 0.237452 -0.176268 0 0 0 
-0.17707 0.678249 0.541804 0 0 0 
-0.227858 -0.0762256 2.53045 0 0 0 
-0.117414 0.160853 1.1737 0 0 0 
0.243937 -1.00932 -0.348648 0 0 0 
-1.69531 -0.587089 -1.87381 0 0 0 
1.34478 1.43046 1.29414 0 0 0 
-0.0793805 -0.39935 2.07743 0 0 0 
2.31032 0.0798229 -1.76978 0 0 0 
-2.13963 2.09173 -0.226583 0 0 0 
1.61514 -1.09055 2.20338 0 0 0 
-2.07513 0.837821 0.147003 0 0 0 
1.01644 -1.37043 2.19254 0 0 0 
0.52161 0.599178 -0.497918 0 0 0 
-1.57495 -1.28298 0.404087 0 0 0 
0.465399 -0.403979 1.82355 0 0 0 
0.705209 -1.52526 0.689032 0 0 0 
-1.24917 0.470634 2.33857 0 0 0 
-2.27882 0.0167094 -0.451193 0 0 0 
-1.91619 0.588611 -0.775303 0 0 0 
0.268259 -0.345807 0.0271459 0 0 0 
-0.612704 0.270672 -1.83367 0 0 0 
2.01279 -1.07755 -1.37422 0 0 0 
1.11903 1.33374 1.49905 0 0 0 
-2.95096 2.29593 2.06567 0 0 0 
-0.0219707 0.566843 -1.31701 0 0 0 
-1.35135 -0.996494 -1.04731 0 0 0 
1.91404 0.190873 1.66843 0 0 0 
1.19268 0.66657 -1.19869 0 0 0 
-2.82215 1.3929 1.66163 0 0 0 
-1.28549 -0.472443 -1.64976 0 0 0 
1.1985 1.15483 0.820915 0 0 0 
1.4857 0.495261 1.6393 0 0 0 
2.3153 -0.782053 0.386248 0 0 0 
0.602841 -0.770927 0.312395 0 0 0 
-0.44069 1.26465 -1.88051 0 0 0 
0.456456 -1.72013 -0.962791 0 0 0 
1.672 1.65357 1.41009 0 0 0 
0.159493 0.42716 -0.660601 0 0 0 
1.19632 0.527317 -1.84114 0 0 0 
-0.324203 1.68958 -0.28118 0 0 0 
0.180111 0.467188 -1.75349 0 0 0 
-2.33293 -0.556695 0.992428 0 0 0 
2.05431 -1.00718 2.17295 0 0 0 
-0.971881 1.46026 -1.65943 0 0 0 
1.84886 -0.8951 2.02939 0 0 0 
2.08076 1.47115 2.06027 0 0 0 
-2.53804 0.576035 1.19918 0 0 0 
1.57859 -1.36449 -1.16491 0 0 0 
-2.68346 1.51314 1.62029 0 0 0 
-2.40509 -0.7617 0.803324 0 0 0 
-0.285088 1.41355 -1.51171 0 0 0 
0.0967686 1.85185 -0.0550053 0 0 0 
-2.21379 1.22097 0.849626 0 0 0 
2.80345 -1.50153 -0.248375 0 0 0 
-2.63778 1.82712 0.793607 0 0 0 
2.20997 1.21453 -0.291039 0 0 0 
-0.906413 0.551384 -2.00595 0 0 0 
0.170287 0.747402 1.98741 0 0 0 
-1.39905 1.13583 -1.83367 0 0 0 
2.00127 -1.11198 2.03764 0 0 0 
2.66855 1.00566 1.41955 0 0 0 
-0.878561 1.52631 0.0283004 0 0 0 
2.57642 1.41322 0.327085 0 0 0 
2.18986 1.11753 -1.72045 0 0 0 
-1.6359 -0.131421 2.27036 0 0 0 
-2.10309 1.29285 0.0585104 0 0 0 
-2.01928 -0.640214 -1.91312 0 0 0 
2.77892 0.443558 1.61783 0 0 0 
-2.868 -0.223975 2.39402 0 0 0 
1.9895 -0.430299 0.738898 0 0 0 
0.183179 1.01322 -0.278156 0 0 0 
2.66854 0.743218 -1.4338 0 0 0 
1.64513 1.42809 1.19801 0 0 0 
2.06599 2.34816 -1.85065 0 0 0 
1.2641 -1.1562 1.87274 0 0 0 
-2.149 -0.50112 -1.79946 0 0 0 
-1.95559 -0.631157 0.883096 0 0 0 
2.4063 -0.562688 2.74756 0 0 0 
-0.859472 0.939014 2.71332 0 0 0 
1.26409 0.732681 0.736567 0 0 0 
2.02336 -1.61356 0.257481 0 0 0 
1.74761 1.57428 -0.879934 0 0 0 
-0.320253 0.951479 -0.889777 0 0 0 
-0.0530977 -0.225564 -0.167787 0 0 0 
-1.3244 0.339863 1.35703 0 0 0 
-0.996812 1.03897 2.72248 0 0 0 
2.49768 0.651379 -0.8547 0 0 0 
2.25915 -0.189553 -0.233389 0 0 0 
-2.01089 1.26716 -1.97019 0 0 0 
-2.28984 0.0901121 1.06669 0 0 0 
1.03166 -0.56215 1.22818 0 0 0 
-2.14654 -1.40501 0.269922 0 0 0 
-0.733404 0.424403 -1.4516 0 0 0 
0.66811 -1.66306 0.41092 0 0 0 
2.92197 -0.527691 -2.06016 0 0 0 
1.04185 0.834098 1.35209 0 0 0 
0.773721 0.509672 -0.73722 0 0 0 
2.21665 0.0203848 1.16943 0 0 0 
-1.54106 0.681267 -0.165211 0 0 0 
2.29621 -0.188353 -1.49234 0 0 0 
0.263974 0.378772 -1.07527 0 0 0 
-2.89954 1.92262 1.58381 0 0 0 
-2.16129 0.333643 1.68463 0 0 0 
0.775769 0.302481 -1.84966 0 0 0 
0.795583 -1.02818 1.31151 0 0 0 
-1.09038 1.55736 -0.951462 0 0 0 
0.491237 1.03869 1.21248 0 0 0 
0.646549 -1.00448 2.70732 0 0 0 
-0.375133 -1.46816 -0.411107 0 0 0 
0.315018 0.765056 2.19205 0 0 0 
1.49755 0.811723 1.66069 0 0 0 
-0.114852 1.36865 -0.818011 0 0 0 
-1.60822 -0.145917 1.69165 0 0 0 
-1.33991 -1.64679 2.57054 0 0 0 
2.66035 -0.349674 1.59154 0 0 0 
-1.94508 2.04062 -0.0230957 0 0 0 
1.93827 -1.12318 -0.429826 0 0 0 
-2.53581 1.37446 0.478107 0 0 0 
-2.82185 -0.935586 0.817788 0 0 0 
-0.855236 1.33291 -1.1322 0 0 0 
-1.74958 0.317218 2.00155 0 0 0 
2.66291 2.2886 0.791282 0 0 0 
-1.78498 -0.873731 2.75141 0 0 0 
2.66405 0.25092 2.87217 0 0 0 
2.21654 0.03893 -0.443954 0 0 0 
0.613273 0.745301 -0.830701 0 0 0 
-2.89617 0.0342225 -0.0682394 0 0 0 
-0.951655 0.332291 -1.27139 0 0 0 
2.06472 0.432659 -0.279021 0 0 0 
-0.452007 1.8923 -1.53309 0 0 0 
0.66331 -1.36773 0.994628 0 0 0 
-0.455926 -1.57795 0.911786 0 0 0 
2.93017 -0.760922 1.97996 0 0 0 
2.69619 -0.970354 -0.600123 0 0 0 
2.60478 -1.48909 1.58654 0 0 0 
-1.40151 0.985547 -0.387658 0 0 0 
0.0697511 1.03455 1.79324 0 0 0 
2.44114 -1.67398 -0.687119 0 0 0 
-2.54198 1.80387 1.98208 0 0 0 
-0.419435 -0.559306 1.41356 0 0 0 
0.222614 1.94992 1.87632 0 0 0 
-2.08535 -0.415967 2.08145 0 0 0 
1.44301 -0.441463 -1.73867 0 0 0 
0.298289 -0.62868 -0.788916 0 0 0 
2.04176 -0.879079 -0.474892 0 0 0 
0.432584 0.202994 2.87188 0 0 0 
2.42688 2.30197 1.25216 0 0 0 
1.06172 1.93846 1.33961 0 0 0 
2.70249 2.23226 0.662719 0 0 0 
1.56026 -0.1084 2.11623 0 0 0 
-0.253125 2.09623 1.61833 0 0 0 
-1.52019 -1.39588 -1.77905 0 0 0 
-2.5451 1.65226 -0.181117 0 0 0 
-2.14575 -0.19233 1.18737 0 0 0 
-0.625167 -0.831879 2.24899 0 0 0 
1.26614 1.51787 -0.389826 0 0 0 
1.17439 1.14451 -0.456284 0 0 0 
-0.829542 -0.172411 -0.96823 0 0 0 
-2.73024 -0.355279 -1.12011 0 0 0 
0.504087 -1.32762 0.885999 0 0 0 
-0.479763 0.548184 0.567401 0 0 0 
0.538396 -1.69398 2.03622 0 0 0 
-1.54202 -0.075321 -1.87086 0 0 0 
-2.36914 -1.25096 2.1283 0 0 0 
-0.377402 1.61151 0.643345 0 0 0 
1.53587 -1.01261 2.57101 0 0 0 
2.84477 -0.84892 -0.75199 0 0 0 
1.53816 -0.832108 2.57069 0 0 0 
-1.27416 -0.199235 1.5805 0 0 0 
2.35322 0.676713 0.947734 0 0 0 
-0.971972 -1.00192 1.01066 0 0 0 
-2.05027 -0.0169675 -1.96924 0 0 0 
-1.80698 0.396303 -1.36337 0 0 0 
0.43487 1.19701 -1.37802 0 0 0 
-0.0120883 1.11249 -0.279445 0 0 0 
1.55209 1.80871 -1.26715 0 0 0 
-2.21351 0.821092 -0.147968 0 0 0 
-2.66084 1.99118 1.74682 0 0 0 
1.65698 1.56691 -0.311438 0 0 0 
-0.706342 -1.15566 0.599631 0 0 0 
2.93875 -0.521994 2.71779 0 0 0 
-2.86822 0.279825 0.315884 0 0 0 
-2.02581 0.411479 0.107567 0 0 0 
-2.2608 -1.33871 -1.31305 0 0 0 
0.686353 -0.274297 1.51834 0 0 0 
1.64236 0.246539 -0.362973 0 0 0 
-2.0145 0.458194 -0.810308 0 0 0 
2.49966 -0.447302 -1.7776 0 0 0 
-1.35018 1.11525 -1.05494 0 0 0 
1.80966 1.09568 0.444298 0 0 0 
1.00567 2.30271 1.0412 0 0 0 
1.90749 -0.740364 -0.983989 0 0 0 
1.00991 1.78479 0.818807 0 0 0 
-0.679779 0.869186 -1.76664 0 0 0 
1.34366 1.52757 0.933845 0 0 0 
2.83899 1.20452 2.52462 0 0 0 
-2.74174 2.32207 1.0038 0 0 0 
1.44125 0.532979 -2.00207 0 0 0 
1.41361 1.49634 2.3607 0 0 0 
-1.42767 0.140674 2.29516 0 0 0 
2.25347 -0.591675 -1.49977 0 0 0 
1.02824 -0.363499 1.00412 0 0 0 
-0.985156 -1.57408 -1.4228 0 0 0 
-1.48688 -1.41834 -1.46462 0 0 0 
2.15011 -0.428683 2.53971 0 0 0 
-1.97073 -1.48329 0.305306 0 0 0 
-2.57758 -1.49301 1.56288 0 0 0 
2.58393 2.1153 -2.04983 0 0 0 
-2.66881 -1.58762 2.73274 0 0 0 
-2.81415 1.17383 -0.600333 0 0 0 
0.823219 0.0869609 -0.281973 0 0 0 
-2.67239 1.45681 -0.072097 0 0 0 
-1.90013 -1.62165 0.328635 0 0 0 
-1.17726 1.91522 1.94223 0 0 0 
-1.66116 -1.49767 2.26337 0 0 0 
1.15122 -0.747933 1.26865 0 0 0 
2.71955 -0.478733 1.57788 0 0 0 
1.08245 -0.743545 1.28265 0 0 0 
1.11446 -0.537405 1.47593 0 0 0 
0.858433 -0.431717 0.0269108 0 0 0 
-1.21341 -1.70982 1.17021 0 0 0 
1.15343 -0.972386 1.32178 0 0 0 
-1.94078 0.264684 0.781354 0 0 0 
2.80408 1.16729 1.08487 0 0 0 
1.99394 -0.0877716 2.30721 0 0 0 
0.00947004 -0.258844 -1.16708 0 0 0 
-1.60993 -1.56144 0.0606391 0 0 0 
2.35625 1.2596 1.54099 0 0 0 
0.616497 -0.197829 -1.87568 0 0 0 
-2.83391 -0.450389 2.94478 0 0 0 
2.30078 0.761695 -2.03825 0 0 0 
0.200107 -0.491846 -1.09098 0 0 0 
-1.72163 0.217496 1.37235 0 0 0 
1.65275 0.104846 -0.0846849 0 0 0 
-0.548672 -0.567753 1.9467 0 0 0 
-0.232908 -1.67396 -1.03275 0 0 0 
0.627675 0.380738 -0.480147 0 0 0 
0.86527 0.47277 1.10684 0 0 0 
0.859571 0.0122535 -0.847267 0 0 0 
0.905247 2.20132 0.688916 0 0 0 
2.06922 -1.03939 -1.93213 0 0 0 
0.207187 2.15372 0.335322 0 0 0 
2.55916 -0.276276 1.77848 0 0 0 
1.37518 0.871083 0.716383 0 0 0 
2.34186 -1.34066 0.803852 0 0 0 
-2.35954 2.29333 0.373932 0 0 0 
-2.71337 0.676401 -2.04705 0 0 0 
-0.828267 -0.776306 0.671298 0 0 0 
-1.55205 0.443494 2.63547 0 0 0 
1.7132 -0.177068 -1.52592 0 0 0 
1.88416 2.0169 -1.77406 0 0 0 
-1.20215 1.73496 0.0263083 0 0 0 
-2.58473 0.634692 -1.79374 0 0 0 
0.712945 0.202566 -1.29781 0 0 0 
-1.82024 0.622469 -1.37485 0 0 0 
1.07316 0.797813 1.59306 0 0 0 
-1.58123 2.25073 2.18303 0 0 0 
-1.72801 -0.872769 -0.161046 0 0 0 
-2.09886 -1.73941 1.76091 0 0 0 
-1.09078 -1.26802 0.58375 0 0 0 
1.39222 -1.00376 -1.52601 0 0 0 
1.72655 1.53977 0.861202 0 0 0 
2.64636 2.33243 -1.26353 0 0 0 
-2.4589 1.02341 1.85317 0 0 0 
1.87374 -0.261227 1.75501 0 0 0 
1.67425 0.696627 1.62576 0 0 0 
1.62776 -0.898719 1.79234 0 0 0 
-0.26646 0.398119 2.3773 0 0 0 
2.87464 -0.690373 -1.74044 0 0 0 
-2.40907 -1.54778 2.28556 0 0 0 
2.01984 -1.41821 0.623053 0 0 0 
-0.684853 1.03408 0.408015 0 0 0 
-2.24772 -0.484981 -0.57629 0 0 0 
-2.54817 -0.440727 -0.82518 0 0 0 
-2.84005 -1.36642 0.212368 0 0 0 
1.72786 0.500173 2.83923 0 0 0 
1.05222 0.436291 -0.894434 0 0 0 
1.44948 0.821958 -0.652334 0 0 0 
0.665531 -0.496454 -0.681882 0 0 0 
-0.152804 -1.15115 -0.280985 0 0 0 
-2.89943 1.40102 -0.806193 0 0 0 
2.43528 -1.12309 2.60006 0 0 0 
-0.565213 -0.625908 -0.881888 0 0 0 
1.20639 -0.33638 0.716944 0 0 0 
2.68416 -0.248592 1.18131 0 0 0 
-0.547297 -1.1051 -1.0933 0 0 0 
-0.6776 1.67293 1.58034 0 0 0 
0.718417 0.624012 -0.299912 0 0 0 
2.40025 -0.96675 1.23062 0 0 0 
0.2333 1.02514 0.788219 0 0 0 
1.73349 0.657587 1.55079 0 0 0 
2.73166 1.10075 -0.377162 0 0 0 
0.0958824 0.905223 1.45714 0 0 0 
-1.99169 -1.52382 2.24176 0 0 0 
-0.830445 0.0586028 1.4044 0 0 0 
-2.44694 -1.49561 -0.718449 0 0 0 
-0.349053 2.21415 0.235725 0 0 0 
-2.37841 -1.14081 -1.45281 0 0 0 
2.38603 1.0712 1.94249 0 0 0 
-0.16561 0.218587 -0.139204 0 0 0 
-1.81699 -0.919244 -0.186396 0 0 0 
-1.84879 -1.08194 -1.72498 0 0 0 
0.157895 1.03509 1.52336 0 0 0 
-2.4397 -0.915502 -1.02095 0 0 0 
1.67021 -0.556004 -0.714902 0 0 0 
-2.66013 1.2535 -0.888983 0 0 0 
0.0701025 1.66036 -0.148127 0 0 0 
0.806927 1.25877 -1.72293 0 0 0 
-0.382025 -0.906458 0.683915 0 0 0 
1.90558 -0.11156 1.69631 0 0 0 
-1.79664 0.661362 2.50931 0 0 0 
-1.38113 -1.28027 0.890253 0 0 0 
2.86922 -0.338184 0.0973948 0 0 0 
1.50594 0.0263147 1.11437 0 0 0 
2.7526 -0.870035 2.57193 0 0 0 
-1.57356 -0.657893 1.22054 0 0 0 
-0.171103 1.44132 0.367781 0 0 0 
2.10597 -0.0517108 -0.977148 0 0 0 
2.5239 1.735 0.0509149 0 0 0 
-0.150871 1.00134 2.05315 0 0 0 
-2.15025 -1.19507 0.546031 0 0 0 
1.35269 -1.26269 2.27053 0 0 0 
-2.01451 1.82894 -0.584809 0 0 0 
1.75302 1.68071 0.487891 0 0 0 
1.30715 -1.45766 1.82058 0 0 0 
-0.734104 0.474844 0.699374 0 0 0 
2.15203 -0.120321 2.77496 0 0 0 
-2.48372 -0.42662 2.01367 0 0 0 
0.0283294 1.51986 0.353246 0 0 0 
-1.02998 -1.65783 -0.315764 0 0 0 
1.39372 -1.09328 0.3586 0 0 0 
-2.24552 -1.55071 0.303922 0 0 0 
-0.48397 1.71169 -0.523905 0 0 0 
2.54396 0.564403 -0.171351 0 0 0 
-2.75655 -0.152673 0.105661 0 0 0 
0.112418 1.18619 0.212891 0 0 0 
2.19159 0.0987344 1.012 0 0 0 
-0.86724 1.15155 0.443644 0 0 0 
2.70634 1.65027 0.682152 0 0 0 
-0.41704 -0.735001 -0.107705 0 0 0 
1.41641 -1.02744 2.72294 0 0 0 
-2.74035 -1.18943 1.42366 0 0 0 
-0.861577 -0.280233 0.838239 0 0 0 
2.92512 -0.134737 2.79009 0 0 0 
-0.432316 1.99373 1.35621 0 0 0 
2.27096 1.45774 -1.41038 0 0 0 
-0.01649 -1.19244 2.13984 0 0 0 
2.9592 -1.37264 1.27471 0 0 0 
0.282346 0.389869 2.5129 0 0 0 
2.60714 -0.681905 -1.63385 0 0 0 
2.33955 -0.198771 2.78507 0 0 0 
1.71254 -0.0420773 -1.5602 0 0 0 
-0.0889233 1.41318 0.235321 0 0 0 
-2.58151 1.38419 2.20915 0 0 0 
-2.76983 -0.965374 1.76494 0 0 0 
1.2832 -1.4465 0.663851 0 0 0 
2.07011 0.592861 1.34143 0 0 0 
1.11414 0.58743 1.79817 0 0 0 
-0.863164 -1.26818 -0.611622 0 0 0 
-1.37872 -1.51695 0.691638 0 0 0 
-1.04987 1.28376 -0.352164 0 0 0 
-0.43983 -0.82846 -1.50786 0 0 0 
2.28993 -0.561977 2.32748 0 0 0 
1.41578 -0.425654 -1.74321 0 0 0 
0.0172146 -1.5895 -1.37699 0 0 0 
-2.68125 1.89208 1.48854 0 0 0 
1.35434 0.611385 -0.679142 0 0 0 
-0.00499556 2.06555 -0.0943812 0 0 0 
1.7249 -0.938154 0.185505 0 0 0 
-0.940762 0.521216 -0.0661433 0 0 0 
0.667352 -0.508431 -0.256789 0 0 0 
1.33919 -0.97645 1.19345 0 0 0 
0.998716 0.014003 -2.02482 0 0 0 
1.82505 0.21155 2.43294 0 0 0 
0.100171 -0.903126 0.294616 0 0 0 
1.75035 1.14418 -0.0615795 0 0 0 
-1.84324 0.285629 0.92764 0 0 0 
0.827701 1.68616 -1.32119 0 0 0 
-1.9103 1.2013 -0.43018 0 0 0 
0.23849 0.0761576 0.512106 0 0 0 
-1.83475 -1.55663 0.140368 0 0 0 
-1.99868 1.18442 2.29649 0 0 0 
-1.93715 0.395089 -0.331844 0 0 0 
-2.54711 -1.58644 0.700303 0 0 0 
0.25265 1.67413 -0.785055 0 0 0 
2.6319 -1.65064 1.70395 0 0 0 
0.244854 0.972208 0.882798 0 0 0 
1.13707 1.13429 1.41543 0 0 0 
1.29161 1.8647 7.24037e-05 0 0 0 
-2.69842 -0.0212267 2.23236 0 0 0 
0.358095 0.761397 2.46362 0 0 0 
-2.95837 1.43072 1.02758 0 0 0 
2.20471 2.14257 -1.37582 0 0 0 
-1.66923 -1.66869 -1.18109 0 0 0 
1.60947 0.556694 -2.01699 0 0 0 
-2.79951 0.325038 -1.90094 0 0 0 
1.66404 -1.55649 1.42949 0 0 0 
-0.775938 1.28019 -0.0679957 0 0 0 
-2.58712 0.122154 -0.670342 0 0 0 
-0.135088 0.307831 1.4426 0 0 0 
-0.981834 -1.49542 -0.511875 0 0 0 
-1.55557 -1.48941 -1.64607 0 0 0 
2.10949 2.08519 -1.90788 0 0 0 
2.93721 -1.1193 -1.81396 0 0 0 
-1.93931 2.04388 1.00724 0 0 0 
-1.86853 2.15969 -1.482 0 0 0 
-1.66075 1.25908 -1.25057 0 0 0 
2.47878 -1.32799 2.4573 0 0 0 
-1.08366 -1.06539 -0.280588 0 0 0 
0.576906 0.892004 2.23563 0 0 0 
0.645451 -0.861787 2.85552 0 0 0 
1.15411 -1.45452 2.5234 0 0 0 
1.3537 -1.47515 -1.73593 0 0 0 
1.66417 -0.764797 2.90787 0 0 0 
-0.628897 -0.00551872 2.66705 0 0 0 
0.0734632 0.897371 1.3225 0 0 0 
1.04904 0.559886 1.83396 0 0 0 
2.58854 0.209628 0.872838 0 0 0 
1.74565 1.42946 0.76003 0 0 0 
1.26432 -0.175182 1.84284 0 0 0 
1.15325 -1.42825 2.19924 0 0 0 
1.05267 0.657634 -1.29453 0 0 0 
1.0034 2.27372 0.837667 0 0 0 
0.669826 0.273732 -0.950167 0 0 0 
-1.25106 -1.05196 1.87495 0 0 0 
-2.56815 1.32217 1.26886 0 0 0 
-2.90148 1.06055 -1.36182 0 0 0 
0.580897 0.216337 2.52898 0 0 0 
-2.00402 -0.960556 -0.573302 0 0 0 
2.6235 1.88731 -0.184708 0 0 0 
1.73765 0.285872 -1.16272 0 0 0 
1.24269 -1.03731 1.78219 0 0 0 
2.16638 1.70698 1.68111 0 0 0 
-0.326883 0.119184 -0.871016 0 0 0 
1.00334 1.30524 -0.0212657 0 0 0 
-0.265356 1.58096 -1.2885 0 0 0 
-2.24957 1.62629 2.15019 0 0 0 
-1.40533 -0.0229735 -0.472269 0 0 0 
-1.9019 0.642657 0.489496 0 0 0 
-0.12677 0.405197 -0.0851405 0 0 0 
2.10712 -0.444543 2.40416 0 0 0 
0.310671 -0.364969 -0.2653 0 0 0 
-1.77295 0.145106 2.5232 0 0 0 
-0.842141 0.64102 1.62867 0 0 0 
0.108516 -1.64486 1.63948 0 0 0 
-2.79578 0.318282 -0.751531 0 0 0 
-0.444348 -0.27609 0.842624 0 0 0 
-1.08828 -0.124483 0.976139 0 0 0 
-0.707833 -0.925458 0.43143 0 0 0 
0.872062 0.488001 2.15139 0 0 0 
1.49028 1.31334 -0.558368 0 0 0 
0.986877 -1.31948 2.36618 0 0 0 
-0.57256 -0.503089 1.58706 0 0 0 
0.359922 1.62268 1.71018 0 0 0 
-1.18676 1.74106 -0.787344 0 0 0 
0.377965 -0.616824 1.01326 0 0 0 
-2.10944 0.681747 -2.02689 0 0 0 
1.49489 2.24327 -1.02211 0 0 0 
-1.47796 -0.682991 2.7591 0 0 0 
-2.45369 1.97052 0.469565 0 0 0 
2.53809 0.949801 -0.80848 0 0 0 
-1.60326 -0.418854 -0.286595 0 0 0 
-2.29203 1.23617 1.23581 0 0 0 
2.03352 -0.565824 0.336861 0 0 0 
0.570313 0.664679 -0.417005 0 0 0 
2.09276 -1.12484 0.966014 0 0 0 
-0.193213 -0.532078 -1.08607 0 0 0 
-0.134127 -1.54961 -1.22446 0 0 0 
1.11116 -0.520376 0.0774652 0 0 0 
0.886248 -0.165547 -0.395192 0 0 0 
-2.04158 -0.462038 2.90778 0 0 0 
-0.544088 0.480586 -0.493135 0 0 0 
1.56952 0.947149 -1.86576 0 0 0 
-0.453714 0.301909 -0.420243 0 0 0 
2.39592 -1.35467 2.5333 0 0 0 
-1.57856 2.14256 -1.73282 0 0 0 
2.01382 -0.0417466 -0.245943 0 0 0 
-2.75052 1.91631 -0.00608025 0 0 0 
-1.74412 0.633553 1.49514 0 0 0 
0.799274 -0.804654 -1.59534 0 0 0 
2.78467 -0.164983 -0.0226205 0 0 0 
-1.32906 0.543768 0.97848 0 0 0 
-1.07975 2.28093 -1.53911 0 0 0 
0.876078 1.88617 -1.06034 0 0 0 
0.384605 -1.25565 -1.32216 0 0 0 
0.790859 2.18702 0.765637 0 0 0 
2.95246 2.33668 0.226545 0 0 0 
-0.536897 -0.919574 -1.88461 0 0 0 
-2.25398 1.68363 -0.73178 0 0 0 
0.739827 1.39737 0.1676 0 0 0 
-1.8756 -0.267537 2.88073 0 0 0 
-1.24066 -1.71277 2.3047 0 0 0 
-0.0405102 0.603817 2.90482 0 0 0 
0.850555 -0.900322 2.69749 0 0 0 
-1.72774 -0.910416 2.67357 0 0 0 
0.991652 0.769255 -1.34098 0 0 0 
2.80675 2.14796 1.88256 0 0 0 
0.74713 0.608554 0.707498 0 0 0 
-2.53718 -1.1302 0.919915 0 0 0 
-2.50961 -0.375806 2.731 0 0 0 
-2.59092 0.817438 2.77089 0 0 0 
2.58185 -1.26132 0.6233 0 0 0 
2.52897 1.37732 1.65888 0 0 0 
1.90546 0.868554 0.737251 0 0 0 
2.7743 -0.339861 -0.603571 0 0 0 
2.67006 -0.450661 -0.858763 0 0 0 
1.41036 2.1165 2.026 0 0 0 
-1.23658 -1.6879 2.77986 0 0 0 
2.30138 -1.37172 -0.568292 0 0 0 
2.0433 -1.11175 2.57246 0 0 0 
-0.914014 -1.6808 1.96599 0 0 0 
-2.43778 1.91221 1.81612 0 0 0 
-2.75359 1.17845 -0.00702753 0 0 0 
0.568717 1.04522 1.71542 0 0 0 
2.30811 0.839937 -1.72447 0 0 0 
-2.18788 -0.236019 -2.01823 0 0 0 
2.65587 0.960049 -1.94785 0 0 0 
2.45547 0.499946 -1.48999 0 0 0 
-1.6976 -0.138535 -0.713513 0 0 0 
-2.14284 -0.92284 -0.263338 0 0 0 
-1.88781 0.496176 -0.184251 0 0 0 
2.88509 0.861999 -0.728372 0 0 0 
1.54695 1.00954 2.85482 0 0 0 
-1.94352 -0.648136 1.24817 0 0 0 
2.53357 -1.10358 -0.61005 0 0 0 
2.94968 -0.565032 1.23966 0 0 0 
-2.91512 -0.780121 -0.471363 0 0 0 
-2.76272 -1.13372 2.28029 0 0 0 
-2.06979 -0.256296 -0.777076 0 0 0 
-0.460182 0.313386 0.23091 0 0 0 
1.68088 1.05934 -2.0486 0 0 0 
-2.01881 1.00268 1.14676 0 0 0 
-0.426753 0.0211326 -0.503602 0 0 0 
-0.538659 0.728579 0.841043 0 0 0 
-2.5473 0.428962 1.62752 0 0 0 
-0.815549 0.416951 -1.95253 0 0 0 
-2.83424 0.452849 -0.76964 0 0 0 
